ncols         233
nrows         24
xllcorner     404245.000003
yllcorner     500095.000025
cellsize      50
NODATA_value  -9999
438.812325994079 435.683991350196 432.291078031684 427.390394671079 421.570667336101 414.302308768333 407.702317821243 403.294819063417 399.104344292361 395.293693778751 391.208504278012 387.39064247883 382.914457354933 379.119983098922 375.998241037961 372.927183697096 370.519140270287 368.058405806659 365.678289807573 363.593118634843 362.197900521882 363.633803629517 364.255427490744 366.022440539922 369.531550984816 371.888144989785 371.09314355709 374.030533809408 372.58071312624 369.912491202772 368.66879850175 367.155133841854 365.028872349321 359.094384108185 353.98840171452 349.215969122649 345.185645485277 340.941939285837 333.813825347023 329.01473023042 324.217898219665 320.046362123241 316.91124484138 312.23536695536 310.474917969457 312.741572219879 318.379922625114 322.998008455602 327.791682936286 331.993442848955 337.931440961199 341.541284387807 344.541657920081 345.477798689985 346.674579898819 346.994396680161 348.271496670563 348.889662263757 349.210523078839 350.994839568613 351.594434561386 351.299896811166 350.993017279823 350.96337731563 347.880069464872 344.291804751724 340.699830514935 339.165352399042 337.646726974995 335.563797958428 332.622793878002 330.8027788038 328.386307107711 325.080296705977 321.765038974325 318.001123988737 313.405563231809 310.400609874873 310.540430817315 309.319907816694 306.954007667791 305.74873789952 301.892510071279 300.947406375401 296.478240395971 292.493663370605 289.144290376763 284.645697053176 281.942319076677 276.300702032895 272.381103258261 259.367221200071 254.255636149781 254.54505800022 252.347594178665 249.33270901553 246.062669588398 242.46985805958 236.791624170254 228.914151018251 219.341581701242 211.226307486325 202.168389860781 196.818594586664 193.20413389497 190.183302881233 187.753774131366 183.223615291767 178.990107678011 168.526411154832 183.198991604834 209.229976069808 239.1121340766 256.007090368968 260.842161711656 259.890624329622 258.870164044911 258.928452138163 260.91465934828 262.308281523875 264.579836133123 264.597280371192 264.598893190598 264.597685551167 264.598992404067 264.598886871358 264.51644953635 255.778635002115 239.617049536936 202.830081803905 187.124704535117 172.354088861845 167.086998607534 167.478756376833 166.714007197822 167.105427747856 165.352425930344 161.965383048961 160.168978299915 161.095167682235 160.940359750503 161.022068925819 157.055822808969 151.033116129084 144.098153821679 142.927788164361 149.221228149133 150.514264495919 143.214592646511 135.248417961098 133.871968830902 131.543599493303 128.316166996235 128.245177762668 128.244325436512 128.526675938245 138.817060264362 143.484512073554 141.704466080976 138.67953465641 135.044615128315 130.384074556972 126.034560544033 126.009906780117 123.062567190409 125.090295914463 130.938717482309 129.672132283532 128.393348093352 126.58253106517 125.32246016641 124.00676588971 120.745601827145 116.630471224118 116.429487926355 116.230688024169 116.032637278526 115.842201870343 118.217686536128 117.4846972366 121.704875549247 114.295633671064 114.099772298803 117.323251623164 117.575901602556 118.753287901707 118.543027101322 119.095885569479 122.410108190953 123.499629339244 122.998444138273 120.918354843416 118.425793040627 118.353348921614 118.099052389011 116.760522491415 116.885248562856 117.557467806533 109.820813963397 109.628980510067 126.644212944546 145.738461657843 156.000461362404 165.031439800635 171.699034497227 179.543463055481 184.227004060851 186.055871363417 188.400501899514 190.73361365969 191.264170477101 192.788591567896 193.336152843118 195.729694616592 196.983180105667 199.277614603733 198.522848797055 195.466326208002 191.786396884589 188.841334849637 186.467689341715 182.971448357974 179.501032209367 177.907380711698 170.58531079203 172.280379828111 168.222839814831 164.418284605081 157.62332514403 157.786930653799 155.22910609683 155.19561351031 155.915888880506
440.900992469441 437.785391237798 433.96370368723 429.204957594104 423.993624367667 417.782737818225 410.533186607325 405.336453690576 401.496908578439 397.403194168841 392.940868640126 388.73008283856 384.645466386685 380.528188172689 376.987819919794 372.937934224561 369.934386781772 367.255553966931 364.277776891056 361.613366214086 360.069852551235 358.804796522382 358.259582834192 357.08250236942 356.830728608804 359.454266460757 362.127092465912 367.420200765281 368.050938263018 365.981135132627 362.742188180919 360.644677874509 359.369533000303 354.602813417374 349.818608802943 346.397395885836 342.503817907711 338.009646653317 332.923087557634 328.411672826665 324.804490493972 321.190108236233 318.055391310807 313.053462720483 310.072719098478 309.225124454381 313.017597699832 316.901446157187 321.762918892898 324.504256938449 327.813726853932 331.410527920644 335.865878038898 339.725609986814 341.241422745488 342.181150490609 343.994910272346 346.373656202507 348.880778265448 350.976916681015 351.594739042343 352.190894499925 351.893221607727 350.99949118962 350.971571222716 347.88358464538 343.701348679435 341.588590405973 340.080362491283 338.860747529364 336.480172622777 333.487126745118 330.769181977174 326.255281542233 321.208549064576 318.983938447332 317.204216254692 315.982223748954 314.201225389062 313.277669974307 311.184532443502 309.951969394023 305.498020313599 302.208438008393 299.19433943518 296.779452041481 291.029629552668 288.284620152067 284.107627500851 279.025740532255 274.49179369342 266.708041908245 260.911827259008 249.540730412011 238.077481588899 229.55997453738 225.607403895992 223.02796932439 218.721529245575 215.438635419809 214.198830943266 211.762961846548 203.016925108048 198.779202673924 194.048036182779 189.859583010713 186.733175860593 183.546766545553 179.698428732849 168.011051626898 179.102140241953 198.664192923558 228.878516466955 251.738716571011 256.959420150307 257.227701086645 258.218544796445 259.349006029719 260.867457461781 261.695897094772 263.280928128214 264.583414000152 264.586246584579 264.087189597096 264.595752372613 264.599795462521 264.539848940399 258.839074784796 233.133463542633 197.289655791523 184.11492942141 171.234724805717 166.060489654419 166.391388421321 165.894790567497 164.771677528433 162.024789874835 160.480393693996 161.08176393145 159.279237133955 157.760685820771 159.256058274876 156.669377471718 152.896878348978 142.127714258336 135.990484094929 135.53213909715 142.636475181616 136.891486550266 130.19958604762 128.912347452332 127.777236789263 126.963365415536 127.667085852969 127.571235200418 127.766922714523 128.041343128885 128.172028313532 128.148787339455 128.167033708454 127.884199449938 127.25345812013 119.421915635378 119.217456771709 119.013077856444 118.809370817516 118.60406332564 118.402286010781 121.843035566305 121.704888233044 119.92025367053 120.693395325453 117.017769041162 116.81840840666 119.608026253252 120.249488070213 118.617637889825 115.645943045293 115.456557547625 117.765592052522 114.678710541369 114.482921360045 117.631384042403 117.781350384504 121.760895616909 125.768890983538 128.340174764972 126.160601501826 131.16266497127 128.320446750033 130.083541021536 125.879006710695 121.417275475103 118.847787018739 118.144577924207 118.13930575668 117.931278469506 117.938206121724 116.444610900274 109.442646336095 109.251247360444 126.110158163317 140.991691436466 150.229734271492 159.554304555064 166.881916071088 171.425522091649 176.307405450949 173.146907720218 175.417655691849 175.190530770423 172.806777919258 172.582144713654 174.440443831916 183.531203186072 188.776400227317 190.831614549958 186.79030370271 185.134018001099 183.391872968689 181.161164942786 177.485575137246 173.801028500352 170.446078363313 163.471375358173 165.144015406473 163.543116266962 159.830222055955 154.584221588306 150.347682165928 149.940173439905 148.985496960224 149.887414406502
441.563804052716 438.792486059189 434.993550641245 430.876559036643 426.394211009123 420.524540125916 414.96999914548 408.843245869477 403.931261933965 399.539666650104 395.672680672952 391.506676764946 387.391618278142 382.922126201384 378.42406442203 374.40724900448 370.544138883193 367.816750267205 364.587600535427 361.854876875589 359.992515339372 357.835335944459 354.320842915251 351.98907940152 351.657826000386 351.682143166132 353.461975417861 357.595841946513 362.304408120461 361.457404216017 359.669785319372 356.704047509678 354.007330266868 350.040560352958 346.436565436028 343.706133380149 340.401511930805 337.359109557988 332.296009250423 328.399580842615 325.070235937484 321.79465740847 319.216282860477 314.769931892864 310.367109934631 309.150891248704 309.149974788791 310.369754013282 314.204748616738 317.198629777419 320.292699217467 323.012303389011 326.022152381374 329.018234066584 330.869486010764 336.453644077637 339.765720798608 343.085590394388 346.68251020395 349.186018132276 350.98711563423 352.188062375005 351.89514927048 351.005861757623 350.982958472555 348.499188267841 346.090714971526 343.103389992942 341.900120194814 340.696955526846 338.58952025825 335.284727287862 330.8033400664 326.003286144948 320.273969293144 320.567202614714 320.904522079964 319.987936113502 318.383980296377 315.989937679551 313.596080607775 311.196884896036 308.199526612281 304.900269463168 301.325361019809 300.975007246939 297.378122903695 292.49184142287 287.667323857011 283.770683710344 278.114146550637 275.09702103379 272.035874015784 260.280365734508 253.067956374189 244.066817354258 235.284309986147 222.575423018258 213.280997110035 208.80550816136 202.164229125979 199.426721154648 197.600216076457 192.116787759652 189.27031529727 187.248065655768 181.521624795444 180.198615402337 180.835164651553 167.289133277169 177.651947433491 186.263274741928 215.521101928044 246.976205006108 257.204087074876 254.900806496987 256.457843866606 257.499426670261 258.799737300015 260.874650502976 261.204462576598 262.783981405585 262.010720424164 262.507111069915 264.586656758902 264.599086579427 264.531700670495 255.156969117244 227.390108322957 196.124357623527 182.231128635464 170.740243066788 166.00483866718 166.087745122364 165.094094657393 163.509033887208 162.179924489338 160.880975651151 161.072768787906 158.178054696518 155.355080966744 155.269023552932 153.989412117339 151.665985235966 146.770999623247 125.286266933468 123.912974270531 123.653612423351 123.419486564825 127.839737003141 122.361783637595 122.171857218646 121.984031036483 121.796883345739 121.60906263625 121.421216913754 125.645571320214 124.588565204564 124.220077313169 124.717653731772 120.033557814288 119.830693257201 119.626434328138 126.002954915489 126.426447334646 123.737642924888 120.884613151653 118.206480508015 118.005944010718 117.812586731013 117.618856662139 117.417404007086 117.215981178133 119.908087869049 120.926663813283 118.743287733312 118.678317222658 118.680602840115 115.26218460472 115.06476726568 114.867274237184 120.570624714636 120.575142026197 128.171909263 140.294539062458 152.327132069709 154.971054014884 155.973760672227 153.12758109041 145.620346568903 135.706924976412 128.295877997414 125.914897165053 122.730752863918 121.129588394214 119.043674540716 118.173140091127 118.139868665221 117.739155010185 117.422888921758 109.065718155053 108.874402720335 118.229604730206 131.160178118566 145.944441419789 156.679943233807 160.83987722043 166.261597486427 162.753523777806 162.008741868478 164.060471601453 164.682414416377 165.181631090513 167.763726714846 173.04275569291 179.836879237297 183.316968552061 182.000700313429 180.765182221103 177.515670231641 174.619171529495 171.883744426862 167.985276563621 163.868766142813 158.002512397147 157.345720999363 157.977371515113 154.157656038369 149.147304602719 143.954077250585 141.502260179296 141.976946193217 140.979956567091
441.28493595713 438.779251809702 435.69743042991 432.278590192037 428.453865747507 423.97280561303 419.686405531511 413.317856593257 408.788901356798 404.323790738216 399.438023382532 396.017588326765 390.430159662261 385.605178813307 380.810252299136 375.957254623103 372.618873806372 369.868178721588 366.57979685951 363.337501130681 360.308881175286 357.57386960481 353.20906078054 350.178863039219 349.232815915909 348.230606987969 347.354429639826 348.911305760829 352.152240644175 354.801712540043 356.281075051968 352.773250315111 350.958546787754 347.892357566663 344.902011028719 342.182844575588 338.58596671646 334.694793040634 331.093556789302 327.487467644029 324.195788180748 321.193589547017 318.366391309049 315.047934377 310.940930410621 310.878549303244 308.990348155394 307.628743660377 307.94553635335 310.034788019408 312.727563185561 316.008066876855 319.005343315335 321.239313459237 325.121899744265 328.749016143051 333.803616848045 340.05268010458 343.972750395198 346.689678399139 349.780759665896 350.995382602314 351.890189976794 351.298184965539 350.984093274615 349.477859680005 346.698385497769 344.597963133564 344.264861698731 342.777576787786 340.386110073806 337.060568302158 331.165793041067 328.999785636438 328.351235785286 326.874593946558 325.67126949992 323.589829333917 320.897673748578 317.810756376353 315.401147767114 313.304707533673 311.190631341614 309.089983758082 305.796184220366 303.088434142026 299.476743681115 294.397279703215 289.50875095776 285.584795742199 282.27413791037 277.813250382819 275.97810327501 272.050125718361 264.485305166202 259.939237536704 250.071262213032 238.402090095315 229.268027322037 217.903674966625 211.879815796161 205.232021137582 201.33902266774 200.645273957814 192.00218186442 188.291635756258 182.309281632451 176.976341244366 171.087609357996 166.780334239064 165.920517928532 182.765744528077 201.209450511153 233.039605921607 251.30149088691 251.704684780458 254.073585391507 256.173420941662 257.00965778484 258.304343140585 259.59569093529 260.873048806017 260.880028212411 260.910327991857 264.064726444961 264.583002825571 264.510798635893 249.720869477281 218.593654776336 197.82488560117 183.550238426997 172.764791818928 166.045819638594 165.849895195285 164.799253513384 163.186590026874 161.131067029916 159.088602873272 158.488469805344 156.403648571054 153.636340015029 151.415976360486 150.15168529272 151.059451883094 146.327683368865 123.973860287824 123.359473055642 123.15005264977 122.938081734515 122.739487755507 122.550067515734 126.131137240037 125.106628127452 125.102157811051 125.941764415206 121.228280315134 121.034558857974 120.83646199195 120.637409726387 120.436617180694 120.23498375887 127.928681920019 126.161793863968 128.001094396793 126.671354097789 125.112619705575 116.573963917107 122.903713650575 119.575854798842 119.37283456352 121.15993071551 118.414497716726 120.234506906911 122.060207587685 122.970385307881 120.843229343695 121.018824652923 121.043584594862 115.205000881863 120.261158656425 122.931975294226 129.684865874967 140.284221478968 152.573147806551 161.615418526896 168.715217901496 173.691500362751 176.284308971733 175.779159042209 168.930763162502 160.811894874276 142.463303181332 130.985750400458 129.76903475839 127.363192544531 124.50092777531 119.074063886882 118.242978394887 118.001438530177 117.904651731148 117.848003868503 108.689671930705 108.499349322419 115.761255107833 122.329889827311 136.033839680239 145.156804081963 157.300094093615 151.778232737332 152.1945960122 157.395356166077 160.925691554967 159.032931684404 160.932055194232 165.587577385468 169.062850121729 175.320821359684 177.613835980857 175.768983903402 172.879239367974 169.385278461294 166.438402823794 161.582181233897 157.655486651164 153.22914786245 150.50060719031 151.643307988048 147.700609428038 141.436429135513 137.414150050716 136.206423653732 134.064273980603 133.122364410188
440.872872613216 438.777410478944 435.67827263077 431.933594053135 429.204676517143 425.670160343918 422.289367227518 419.437849875851 415.306046077098 410.487461192309 406.375505300358 401.487198806354 396.287588918622 389.03732853196 383.891126931617 379.00694530275 375.00882251722 372.244714010461 368.372351418517 364.505747504481 360.671484403749 357.322106463263 354.018121038893 351.304356356108 349.157969398107 346.81958861719 342.898213411958 340.414691984624 341.1139884922 341.73296292252 346.057843106584 348.184207501442 346.052046915301 345.148167854994 343.350782483101 340.921888118989 336.164416423013 331.989978610696 328.964869486531 325.674107911736 322.68556376544 320.837532166914 316.281110201117 312.439729865925 310.893641162668 309.046601709785 307.552768564007 305.521880862491 304.336507587271 305.235678413375 307.61076668284 310.01649118012 313.002440139359 316.293898095439 319.997122240815 324.481971148851 328.706190681041 334.682450120534 340.072081318841 343.984217955507 347.279962149466 350.969391219094 350.992037688098 350.993851828422 350.980812904338 348.88154144622 346.417301794285 345.784570009146 345.175292091588 343.686998736406 341.573690953822 339.10646187055 333.29969549241 332.347617659159 333.461088405749 331.38724295533 328.997107255673 326.884237517594 323.308997753803 320.013647285389 317.505831407271 316.288637531788 312.690823132297 310.861244032518 307.288371581527 303.694852894174 300.384575838934 295.884125442473 291.292355357995 287.392139349973 283.774625048827 279.902807565081 276.609233798002 273.60864303028 270.279972010322 265.989410925412 261.756380220223 255.434431314817 244.676217647137 232.329304097118 224.232067630984 222.358317891962 219.004194984963 207.566486181932 195.314646644982 188.422181000865 183.967901592329 185.350069567104 182.071925118124 176.342838011656 165.28707670211 184.94983931057 188.883772111903 224.227058374056 242.246142025223 248.910112252526 251.69360919428 254.562266176151 255.692694534471 257.001204941451 257.801509551973 257.531471711097 258.033970195705 259.408181323873 260.905569651443 262.480842249927 260.821700279274 247.379212641657 218.550496617354 199.652812725453 188.014648286412 176.45099380507 168.864529635375 166.136126653784 163.785395605583 162.99965304858 161.65231941238 159.284194006903 156.922707223273 154.338724864576 151.729592716904 149.128367810608 151.036533609151 149.330885982515 143.244592743813 123.786240958267 123.654724832329 125.428236813398 125.207778241969 129.10101901474 129.204526189491 130.071901502262 130.286659648027 129.024532047389 127.828361740306 126.407679835665 125.801085557187 124.737082304513 128.513317441941 128.368690256519 129.010284337716 129.088052859668 130.156524198479 129.141688292192 130.630894250769 130.86373414294 129.462785592286 128.995521191819 129.716445250308 125.950575717026 122.680427894897 121.464926120887 121.430606443138 122.194024859719 122.211756452521 122.219983394152 120.307745805602 119.398111877347 127.399488965903 144.10665649844 147.149243628305 151.88185764114 158.773635216633 167.446387142637 180.248040179621 182.939258886048 183.042372663097 187.989413668618 192.410079244491 190.017083074329 179.534744067591 166.629866233492 147.249307201681 131.769419355772 132.991592041254 131.036760544998 123.979349687254 121.077869793373 118.052739640702 118.005794460599 117.891768266038 117.945754806586 108.31326614504 108.123312030003 115.643401441269 115.874033404187 119.367914651563 130.204882111579 133.750089927032 139.976635439178 149.705051432149 152.429520159723 151.977603405425 154.059395248179 158.20042375363 161.443175424814 166.101317931657 170.237242285532 170.825971034018 167.746023126581 163.560612795807 159.080366164116 154.395005712803 149.982728290326 146.877736704547 141.901297505968 141.996714746267 137.923513586311 134.045038469155 132.995206247922 131.371049435978 128.387801412897 126.858222777511
439.205513769962 438.477366963376 435.69671226117 432.6117021463 429.932032820343 428.084953004014 426.794618594979 423.295244380213 419.792984979081 415.699713229162 411.892671219229 407.688675513537 403.268872045956 396.971231054867 389.81837376536 385.589793846551 379.913568545676 375.610407871789 371.017525063002 366.304553528444 361.884290344887 358.296518511165 354.660339964529 351.922250834912 349.194424210837 345.579373585074 341.762135660185 340.086658573993 338.340223491179 336.443098063191 336.006416425883 337.4288046578 338.282966968739 339.414462871341 339.099939493689 336.412509430665 331.947039048349 328.350864875521 324.510261877426 322.01204299947 319.994079490051 317.77109282827 314.193475462361 310.350290582044 309.085134070315 307.59161787155 305.820707568339 303.72857138406 302.278035712569 302.199936510371 303.129840940897 305.209554032223 307.610348599117 310.333944785093 314.520123225223 320.255825069186 323.043757476313 329.297340051989 335.865024627814 340.088903076655 344.588763090395 348.474320302032 349.785395903218 349.801320422429 349.98507289494 347.321785546697 346.70304318129 346.102422040945 345.210024289564 343.706830177356 341.322928343823 339.234348578882 338.562730940034 337.685846314051 337.370045549918 335.284130295176 332.305965832808 330.191373397657 327.493236701578 323.902839695512 320.904440208324 318.391476397455 313.60408600012 309.120121130914 306.700090534985 303.695744143149 300.383394361773 296.470908726913 291.295701431925 287.987127830146 284.400306853483 281.091505470475 278.096177228514 275.384114614708 272.386738203148 268.200769214245 265.753984283974 259.679588519948 254.523640358052 245.593208326097 240.720174812538 231.362902300104 223.250374018689 209.777363921543 197.723327747684 189.640738329281 186.335240777899 186.575479254978 181.515217392549 179.916351284911 164.772668593983 181.284115732845 189.652539269588 210.760935314153 230.883578253088 244.940186968402 250.756446654528 251.497421948928 254.080062285877 256.674715617511 256.704124325028 256.723031875437 257.514422077855 258.314310876829 259.40576644583 260.874539198929 257.146740934313 246.086869939375 220.164994001136 202.747277020737 192.634770470931 181.406708678161 172.209589689336 166.130561308358 163.054391613179 162.503615119576 161.698528911341 159.573870857474 156.874301503331 153.867176492249 151.439803633471 149.130425319386 149.340690049854 141.130148415357 131.985416701828 123.91469967091 125.58286444188 128.872404250569 129.155231219252 129.208265196337 131.943349993295 134.030371134968 135.619503254395 135.904298288702 131.981169510094 129.119843115989 129.038550665545 129.025586458986 130.151859390643 133.186231593184 134.023319723297 136.079863658437 138.886316618358 137.909399537993 136.375673530628 136.579256550099 136.3935879455 135.893683073383 134.781822698173 131.622515594646 129.326025616552 128.483454280774 125.420656059746 122.693024698112 122.529295940673 124.793986128753 129.239589862128 135.30832418601 150.167074401949 156.891936957332 168.628880917237 173.619227907334 176.017596433091 180.438851648837 186.53400414045 195.178323499911 196.854417029855 204.156327829793 205.163038853919 201.23620105978 188.017297145958 175.105838975064 163.732434142801 146.910068186232 137.721553280079 131.909366127791 126.397967685062 121.16063671389 118.113265929096 118.01972210995 118.008097050691 117.985420580397 117.156756360397 107.93771720694 107.747339844094 110.518818976906 112.611585700801 119.393541984403 124.673541154472 134.276328431676 140.881480777924 145.003569753642 144.91098926203 149.247380086914 151.178869415529 156.171989025721 157.579321234476 162.373274034465 163.569142908008 160.98362988321 156.21367451469 151.897505987546 146.997017272928 141.835940004445 138.304931857408 133.369922306167 131.290688718916 128.325361849501 127.474839885435 124.467032451072 123.616324545882 121.782455660933 119.648295308112
437.80371943335 437.483421889565 436.385590104248 434.658270809702 432.281097123713 431.205077449318 429.491278917591 427.089728443462 422.603973097166 419.20179467231 415.71145293971 412.199993459596 408.086602585787 403.592168195287 399.467270120588 392.16906961701 386.494458732047 381.109136400881 375.903208832967 370.112725046679 365.663507586518 361.193274247746 356.803812760292 353.137085584182 349.803204347946 346.357569080287 342.787682434744 340.327875419226 337.773318107887 333.324455775857 331.469675332546 330.522673406154 329.237944997323 329.115804278485 329.055871797872 327.498734308089 323.931321274868 322.632033409333 320.048672027259 319.016339125984 316.831953066575 314.45690067404 311.50912629868 309.15828328348 308.150164012458 306.526270053671 304.507308840283 302.308806701201 301.065448392764 300.421564726952 300.128796031417 300.75611051439 302.264033597075 305.802444519914 309.716992404614 315.0782351574 319.012708171919 324.501730116478 330.198957370971 336.479341796151 341.880998592189 345.780173109611 347.591179310298 349.185685756451 349.480817437178 347.314730748966 347.29388808737 346.996577053207 346.389141632104 344.885988705669 343.09661182318 341.328737835583 341.873993266385 341.286333899672 340.96645455642 338.568006817999 336.183660043289 333.805455957096 331.09682596738 328.094271354847 324.495689375402 320.482692421509 315.398184396943 310.014337435543 306.101593276264 302.802807690783 299.775123530889 294.687873144078 289.243269670573 287.690028627957 285.280091868161 281.997902385604 278.995820895606 276.000801042742 272.980105440986 268.817439601351 265.491940976776 261.481733316552 256.071391088043 250.048443953056 241.393049428115 231.996050289767 222.669367743753 210.698079788574 199.513391774687 192.329510553009 189.301120827426 186.620809445088 183.022646921386 180.802517505478 164.261785911565 163.539248876233 181.908423973216 193.005475507352 216.80603520622 234.470322359016 245.557864504116 247.727220416125 252.200506993571 255.083644950099 256.659141989055 256.700005577933 259.867929475847 258.603244614733 258.320198907651 259.873718588166 255.6518708221 245.776422392874 223.039752465603 206.996252122972 195.523429469278 184.700401928645 173.051501128054 166.16117272924 163.245975632503 162.500532403358 161.83803006423 159.833766707802 157.193615702162 154.775097886685 152.228995125106 150.208643798775 148.795190499592 142.298673974534 125.981236686696 124.096325103101 129.616151267908 129.902529606938 132.451437654839 137.966408995263 138.068941788352 141.43354442692 143.810433168147 145.563570707567 150.9479489596 138.766191924015 134.344913168989 131.779384563056 133.86393909735 138.136322638826 141.0326814909 141.862765974237 142.671480824132 141.437548316459 140.209793425523 142.683443614394 143.185752303098 143.152104765788 140.610482914799 138.564298697897 136.743964345074 135.051941263908 135.445143773734 133.416593004242 133.292865189449 138.361987166751 154.709222119085 158.594179997597 166.656976678952 173.173298424487 178.259186980006 182.705147009793 184.001992491107 196.747267287591 211.648212532921 228.134878514391 238.402173212311 239.930376651917 236.553608359571 229.918639580813 206.212079555499 184.340144623287 171.881817676445 156.405077669515 142.492533702546 134.82110503206 127.79985572202 124.548867537549 119.232387759489 118.110579645555 118.02467210568 117.999399679738 117.770801786675 116.264258439764 107.564941463715 107.375262481272 107.185096948647 114.995609781833 121.16721751988 128.961337129582 133.049190178313 137.379368139909 139.117779171653 143.203951684233 147.160230208944 151.420376598123 152.133755495251 155.204636403739 158.036060801772 154.975091186854 149.80727072546 145.115770890883 140.58345496979 133.486501266057 131.752402782046 129.079586913158 127.166799387973 125.619183697137 124.21190877173 120.184438212798 117.080262356341 114.023419355415 111.84253518087
436.074548412685 436.360837698404 435.683305820904 434.978347135831 433.662382858064 432.595069531919 431.187900608625 429.481438099635 426.387369211153 422.586024578133 418.79898249671 415.311798160451 411.905382644349 408.791699317158 402.897676893023 397.312073983377 393.693889478039 389.473898528251 382.601348674539 376.854279846064 371.050804065323 365.029637032588 359.971439332672 355.814909672912 350.702696245058 345.819961139838 342.178149451446 339.990860554736 336.287259194892 330.681092960087 329.397621583548 329.080101686481 328.570413160661 327.949316585376 327.218569924219 321.981173092942 319.527898563533 319.114968049263 318.615679623305 317.987732904513 315.274576303669 312.015161975773 310.443647252758 308.826405818299 307.710148853642 306.30795267743 304.051290117434 302.147628218056 300.429856779566 299.577256837402 299.214953368359 299.171443099051 299.260841924996 300.785090800366 304.934261143909 310.575437980386 315.097307659331 319.624752845882 325.708382266795 332.002785571282 339.457029554665 342.792497589787 345.790959873679 347.594061053304 348.293645275917 347.608278216686 347.898089585881 347.893965041872 347.294881323956 346.391363936466 344.900827942409 343.720011189584 344.282614551921 343.977763800541 341.908264988459 340.404052451201 339.488057999253 337.387616689768 333.791358652603 330.491017202088 326.593524691138 321.810362066776 317.494594376712 311.249320812601 307.583422156268 301.025945767296 298.270605980748 292.329981731265 288.917688608555 286.50595972681 284.987104482779 282.585525452195 280.740318026648 276.578343242699 272.977001274474 269.077303375969 265.768909192413 261.457680194919 255.479463306279 249.456232902707 241.64716911761 231.674903201269 220.895907509323 210.413983900686 200.443194739224 194.427203381911 191.396981089607 188.961403259988 185.095761847422 182.299109534328 179.156618357455 162.869861596764 171.314211322189 179.737068364362 196.269350274173 213.693220986626 223.575074230939 243.064517091234 254.490804574868 252.860002236988 255.355324819499 255.678235391937 259.842632794101 258.255053622234 259.865193193564 259.851840104666 254.346787145886 245.287273364296 226.897805055392 205.631491890616 193.767884059382 182.683619907073 173.055635110227 167.23878250963 164.038358390064 163.005531611432 162.138741915263 160.076797984925 157.76131795718 155.339818681717 154.528029400846 153.469065822629 149.976863832422 138.797772353557 124.47083827933 124.282226666077 126.540453287999 132.748206768695 139.824595326827 146.874656305382 149.032916595454 154.725586653218 155.250462638875 154.000939038584 152.67615685411 146.883533932606 141.401105535414 139.019622729212 139.802137074412 140.963941423538 144.017860471239 145.344567215323 146.442165500714 147.706835369078 148.207657886934 148.528031566932 150.54800557594 148.568129757622 146.875316106967 149.893987225414 153.495439787776 154.796401935103 156.21607403221 148.053077794431 156.476515510052 158.737952997069 160.281203672076 168.49923043895 172.727798018664 176.255212500332 184.751734104033 193.446029262283 207.472344555949 218.785607215114 238.129922548929 247.099225524271 251.915921709801 248.761617623567 244.258242218727 235.807805494692 221.305912034305 200.876872353809 179.352149271454 166.670314486028 151.713290343046 137.847267989031 135.273362809008 130.269820630227 128.78533840857 120.490015221316 119.094782658158 118.070773976882 118.008821422332 117.555292545664 109.91379685135 108.776547083939 106.999948038682 111.80865911845 120.958896414345 123.475702083973 126.481403586048 132.298297840264 135.266681191723 139.517928051956 140.369439294566 144.096331575355 147.736977388334 149.204360092722 152.44498066473 149.399078316602 143.936293528797 139.530317474727 135.220952684795 129.166442089255 127.275157283927 127.222282884995 121.550302819727 120.769166278463 118.954611445486 120.6290114477 109.088063344868 104.968333197504 104.689808477266
432.586184366637 433.270915540303 433.962803666609 433.279403877589 432.590867808646 432.287836708019 431.596352248459 430.872116251385 428.469902336473 424.686299727976 421.187240093891 418.766699044393 415.293910375136 412.207064460979 408.381644096477 403.903859373057 399.399457079221 394.588777900019 388.275209511568 381.050278042634 374.956340825036 368.999920914325 362.912185203123 357.766710112683 351.222880841607 345.604281042905 340.320667177101 339.296495456529 338.530583773613 333.569974311072 330.3697265927 329.981156895627 329.920117649905 329.006442048726 327.355721246569 324.165368161365 321.517431889163 320.264168665053 319.979282686911 318.301749508428 315.123782053693 311.651154385796 309.541947556665 308.974140408366 308.080932511992 306.998975954971 304.567410596433 302.330992445061 300.066696258024 299.279319339126 298.833184465384 298.598050322717 298.495749740425 298.432733396874 301.070972135232 306.111961977486 310.623630940779 316.301743878099 322.395008134608 328.131280624695 335.577538161399 340.977999829852 344.290358444578 346.398705228585 347.892340219107 347.910568452461 348.890614434397 348.503725824847 348.491256635586 347.604736414505 346.998504647359 346.39689738229 346.09206372297 345.488341410102 344.001731122993 343.08723333016 341.008229076188 339.183395922154 335.891021248018 331.987641025962 328.083896468727 323.892242918675 320.860928063046 316.542074620198 310.248796481979 299.323012744277 296.227554072419 291.085358290998 288.623086957558 285.914182134013 283.795801238629 281.689427006015 279.270977949306 275.975691661069 272.609554028522 266.011210661369 264.405426122398 259.62795230381 252.495307845302 246.733225707496 238.307019967836 227.78174411972 220.273787800481 210.699233215749 202.501119452089 197.070114868938 192.573072745947 188.986426306964 185.630817821585 182.422136784971 180.761690686648 162.099570018995 161.529969279068 172.296051839433 180.80397328471 189.674776082357 208.495910320489 233.300154383735 254.379154095156 254.468179534252 251.959105431786 252.292465776583 253.573510371955 252.324641476371 256.494189376964 255.249062112483 252.629467039018 244.047416852233 222.676382465333 200.458066513527 189.102059343325 179.630488205171 173.51373462835 168.508078025284 165.411259393369 163.800310626447 162.673535494568 160.560701689861 158.496024013582 156.923020114671 155.911232854412 153.934890922408 152.148056219441 138.161416770606 124.64989932887 130.528945812944 131.151189272597 136.502868877482 148.810045469309 157.961744667755 164.238948339479 163.829165656113 164.585739233204 162.480156057439 159.266862855359 153.783977745708 146.996600355468 144.866652678484 145.323308629678 146.916488680001 149.320097920364 151.913356392283 153.525111837728 154.37190214442 157.460639970589 155.957943286071 155.25243363549 161.056554997266 161.975205453462 170.770283686902 171.710285057374 173.861453543131 176.534513739583 168.363027958682 172.592672430891 174.172980961007 176.106307137763 181.953363361288 179.387791408211 190.309052406671 208.246943373481 219.236728764965 229.525289553167 242.364269185585 250.82475679486 256.934852881146 257.144456418121 251.476782192171 246.464712002243 238.276989894829 227.721742142623 210.593814121911 192.190972199584 173.408330501164 159.644449144723 148.499792215718 140.128092069453 134.390384194127 131.425183996819 128.977716387846 127.316272635874 121.160595147521 119.048560629248 117.185026077587 112.097911384109 109.541279544399 106.814164406256 108.401902524104 110.794563438615 118.172823526722 121.1733782556 126.524726964616 129.773159075141 133.452885490478 135.872643319487 138.640791984369 139.709487984297 142.796687253042 148.118143550151 146.056241202333 140.589623411477 135.035981042489 132.414244103987 129.054754463602 123.955270000484 121.738243317364 111.052616248652 109.505468388342 107.422030490006 100.324356690727 100.140536421279 99.950989222969 99.7577093862247
427.839028271405 429.212754154048 429.909756049607 429.932071216207 430.910753899 431.208042664837 431.591322212033 430.883766315849 428.471868944283 424.982301368922 421.597485944475 419.767031938797 416.69467571778 414.672927386178 411.881467753587 407.871910653156 403.286822916717 397.882902515064 390.959104518513 384.289604346353 377.811005025752 371.625375382126 364.969270752167 358.097589596107 349.098878071455 340.839851821985 341.235607197757 341.993977135157 341.619136011769 339.486064288354 336.796216219904 335.004222337017 333.505311547304 331.431609050335 330.197187955367 328.663680310473 325.989989069471 323.626193423113 322.405813239996 320.511128798367 318.077109086357 315.088052623721 312.146149284781 310.663391801889 310.870457991048 308.495452720753 305.487147694375 302.240717535607 299.640443337257 299.181882314704 298.783184786834 298.547008808245 298.462239978475 298.414133923831 299.531186971822 302.828434377104 307.614075342852 312.73026855625 319.311178995009 326.00735177879 332.89331072077 339.182332141682 343.387159136051 346.099995620256 347.899381272751 348.509063825865 349.491752682501 349.496988631171 349.495484412096 349.491763115945 349.190555407914 348.49548678614 347.606245912679 347.00131786462 346.102532533267 345.491095053171 343.397030379681 340.397103214943 337.379796294547 332.604434470601 328.10636279672 324.200711892943 320.883904044977 317.739743455521 311.160220353739 303.992269294892 298.276995384243 293.502733006277 289.519843970059 285.926496620643 283.190584709437 279.049737322369 277.198470553381 273.88352832542 269.053234131037 261.215865148995 256.922791825287 253.598992176095 250.810113720337 240.637330667364 226.699430483698 220.938710295731 218.110553184285 211.466436919269 201.791721336732 194.96304602742 190.227260077272 188.878260601535 184.231506525506 180.608469024637 177.837206778339 170.893723769233 160.627821318695 160.095098055014 171.407409426662 181.001926346843 193.427767382263 210.951817804674 226.247134773645 242.902290542054 240.368711485382 234.895683041019 231.92399692494 230.340957368166 229.547895674736 230.643596183884 232.880900804104 229.422007934424 211.33497927014 192.601980416029 183.84565628639 176.768533367327 173.014860481046 169.311144256347 166.118806123233 164.315966954445 163.187266551714 161.110349893718 159.037741777583 158.423434331302 156.717771211358 155.123198785327 152.100279320677 141.590583942403 124.836354400738 126.998829748729 135.14126354257 146.150863754459 162.920643946527 168.487586670717 176.82642023817 182.583065598401 176.378375115874 170.396914833366 166.09503387798 160.921318287799 155.650435372285 151.797090844947 151.725237393055 152.551548871976 156.909314890918 159.842984430344 163.197615019099 164.839077660563 167.223999756042 166.512856078593 165.848832971724 173.852973879315 180.671303415588 185.550479306828 189.818691311932 199.929938026575 197.37158366314 192.35277209495 198.153797968199 201.88484085995 200.856446016747 202.177316663606 214.383424134883 223.14018174325 232.348481788338 242.633973171 247.414582821763 252.759014175975 257.471702508605 259.571165007627 257.775212142695 252.191495764752 246.974984854889 240.089435663094 232.93564009352 219.850371430588 206.65965144508 190.077856814927 167.058281137451 156.002107525828 146.715160897416 140.166808979102 136.434197024587 134.469100567397 130.573417579121 127.328846929496 121.937280105191 119.502589676621 115.908766971923 111.891047298938 106.633008394715 106.444297899639 110.109609894848 113.718352090264 117.216315178666 119.403233658451 122.770805418012 127.363499620706 130.517504689328 129.841981245433 132.481600638123 135.787247577262 140.938160320595 142.325258902793 137.640350597301 132.006758048671 126.338401655636 120.305319521069 112.620717381458 101.267147002115 101.079552058769 100.887836686694 100.696536299483 100.515255084928 102.979502287915 106.161408599818 110.197081558443
424.853041752495 426.754913135706 427.127219345126 428.791318981268 430.86867624451 430.880183427685 430.877762655579 430.858721531347 427.368363001831 423.303154940552 420.222631673571 419.17978221495 417.080997438298 414.971068370746 412.570939612228 409.379021763913 404.879795948908 399.971761727193 391.569001111587 385.647997341242 379.509907317061 371.087359298871 361.76673366866 358.048428813272 354.315669530359 353.363689660857 352.116538798897 349.942935667943 347.275139179141 344.586576749128 342.186577694383 340.368097156328 337.699810924937 335.309843143407 333.216568732179 331.701009924211 329.892279723234 327.515163590648 325.713348272999 323.903404126704 321.777630829989 318.699027628817 316.03310795791 314.794376351995 312.436588741019 310.302190416659 307.577608797424 303.990719418214 301.320933257978 300.097810792099 299.154427751137 298.505260206879 298.397786765519 298.358610088566 298.36692406465 300.452908699835 305.209560722272 310.624542542978 317.806527032399 323.94191797933 331.125479730526 338.581342310211 343.096816630365 346.688137030607 348.888313039751 349.7963777823 350.396678584107 350.023034746426 350.417209857182 351.005140570449 351.00101642746 350.403131734514 349.800317225082 349.197400588356 348.495786527001 347.595507460781 345.189856061704 342.192635021865 338.579283082616 333.498027475669 328.999400854951 324.209975039197 319.053609458715 316.004799808637 310.317484331081 305.759484582547 300.075089539849 295.260709691875 290.970502988498 286.795252291741 283.179492346206 278.989782509765 275.665018041709 272.070827562766 265.79309853269 256.777655279927 245.005093750065 238.653320857121 236.190810806168 228.137209088362 218.826669194342 214.85872589063 212.646898171432 197.732505608446 189.315305599864 189.033106876187 188.899209704257 187.431793305119 182.094970065434 177.936582544908 171.931923600761 170.946431945623 170.777793780965 159.276092893984 158.73498383405 174.316678760743 187.449970938562 198.005319076551 212.84718301893 215.33178244642 211.509482405245 208.926461909573 207.534022794377 203.632937721239 202.343550143336 203.440860096801 207.257624464496 206.402593004516 197.043835803022 187.251152099137 180.922247884272 176.706196352563 172.995010240011 170.094980221972 167.221972750374 165.41124601007 163.8089387868 162.479745848786 161.063212104789 159.533918175321 156.910415995647 155.610352214787 153.191281882378 145.994400388872 125.021300710866 127.265655568105 139.841032524921 157.673130453842 173.214964712055 180.358691950474 185.092894699377 194.235957074097 193.702157088384 178.348151536699 174.591920822129 170.380257918616 166.082687818872 162.504264763799 159.117107384696 157.784583675304 166.391848992886 171.055065606202 174.73564359776 176.123688153267 182.080223236916 184.943728201769 185.106631468961 194.032712696876 205.026549386752 222.161609491553 224.807738458892 224.593391168433 218.22683102315 213.467091805772 223.415369631171 228.197116406063 224.359142498997 219.894520666161 232.716457910651 242.066852927234 245.840650693718 250.083031336503 256.463220562362 260.853584742752 261.474706188032 260.877034174783 257.479777751571 252.496985708383 247.484234916619 241.491998428749 235.853218467951 227.891091240709 217.905539746199 205.278837514601 190.550576256082 168.373016256191 153.455468848911 146.802326185301 141.916190610765 137.402623681112 133.211083515074 129.322685339633 125.906113774354 123.732789215907 118.778557200507 114.24470930326 109.01703954809 106.263465467849 109.461690124685 110.92508163667 113.723850218116 115.924268340286 118.509121960143 120.623873576594 122.941310746941 122.226720213244 123.647034241911 128.185606862436 132.265356466363 135.110427410305 132.208485260916 124.980965742365 101.995219859993 101.80822776835 101.62458853811 101.441834261106 123.07335559933 129.418809859361 126.21630452117 117.873211012057 112.961326341487 119.514457403603 130.562716523144
415.882365138859 423.42633673971 426.021947486926 427.769150004358 428.494777306548 428.792762490186 428.480796537964 427.083715983624 424.691967655347 421.899020354159 419.508752435447 417.417602684341 415.711353890456 413.32292002729 411.499397072786 409.078563763006 405.472907691898 400.727561692071 394.309939133836 387.243050192769 379.299155119672 370.724934827848 367.576692048075 365.156909962794 364.182552837378 362.366985984757 359.386664034414 355.538333106188 352.526483824668 348.973423691615 346.741125612403 344.339135493983 342.21947368056 339.528815862292 336.851897539172 335.330108987499 333.814050897238 331.726997581225 330.194879835733 327.800401233796 324.825386801861 322.414855526347 320.49809891937 318.963178684377 316.273502808888 312.41172581556 308.528292999983 305.22930162204 302.797566615016 301.01326206681 300.111590435568 299.17347436499 298.357212541635 298.31788454275 298.33542890638 299.243310134068 302.566185073525 309.14762032347 317.49631785113 324.805871898728 332.304067099724 339.77078305142 344.284778829843 347.308347552855 349.79957252622 350.713689487306 351.903830797907 352.216318699255 353.104048807044 353.698713374451 353.695690908066 352.806767221407 352.204149440661 351.60002089325 350.699413119497 349.789971840694 346.988448248481 343.391782846853 339.199498635479 334.405962478668 329.901336725474 325.406234124169 321.194085216297 316.858642920941 310.867606783322 303.124670582121 299.764666713785 294.965483976854 290.659289662565 286.46478062511 281.984342006682 277.783925064811 273.008876532611 269.390969933546 264.897032415408 259.333639157942 250.895240783019 237.136748352272 227.814620252494 219.302358968305 209.512404570922 204.263891974936 200.562455515286 195.494704390242 189.410926911834 189.010258881457 184.572731199888 180.195693325674 178.248120111265 172.434596803693 170.476583776455 169.241316316823 168.527778944157 160.955884351234 157.873608220891 168.973728853089 181.570450432717 185.42968517035 189.213939646173 191.074608218694 190.808569679388 189.777412739842 186.657567939805 187.619955251654 187.821679297245 192.494633073198 194.581741877178 194.064799642236 188.511095628791 183.300543825208 178.510188912825 175.399002341913 172.697275551023 170.10172633885 168.761614486034 166.898179699091 165.372823035436 163.005827757757 160.657004979262 161.079633520253 157.713666340247 156.698974278585 153.832523036502 142.582473091461 125.206932637935 130.667288736623 145.124836924145 166.817668711061 179.291673057052 188.761397868255 194.094640620202 202.925343473235 200.042161131882 189.588357293538 183.522095391007 178.862351705887 175.640014521374 172.269558937682 172.720786506541 176.353462420873 180.297477975347 179.052021809392 183.461511963362 188.724524834282 191.091302520207 195.080177125271 200.373744373631 210.506445389926 226.829898395701 233.208989129085 235.324459508419 233.537419957293 227.875316072099 229.241805730621 230.72813297739 236.306111821839 233.590722642503 231.034020224924 243.227574986986 248.784635332054 252.215282482658 259.357008498007 262.465723015923 262.979158455007 261.990387772024 260.870869582328 257.185705086603 252.493791003358 247.798396971946 243.273762725979 236.690537632594 230.675825400192 223.222659848223 211.679531786137 202.844399276781 188.107269004216 167.750145489326 154.477637940357 145.424646032743 141.143240707472 136.462373229863 133.50718850111 128.548965458236 124.348169134595 121.093758597521 116.85283402561 109.888648074932 106.075227320823 109.549918208858 110.320693400427 111.595443745876 113.191674512935 114.302728514415 116.33777035002 114.381970736526 113.931007405097 116.444303660111 120.779031296479 123.85254106938 122.7727573542 122.468401528208 102.362394880372 102.175514505021 115.636562483599 127.131622517724 133.716983246466 137.281197868701 140.969884955006 140.73481561616 123.064935600833 113.322830292224 134.936861701705 149.513295333663
402.85085178576 415.425212015127 421.441920254047 425.320484232229 426.768101895741 427.069496909083 424.705273629669 423.305553655178 421.908556831009 420.210777479685 419.184714020546 417.377398154656 415.653512262873 413.566232275481 410.887574270748 408.165348942688 402.700602779255 400.864433888024 392.827037607938 383.517806724793 381.197845109648 377.575100059263 376.480754531577 374.966895811977 373.441587961042 370.179047957518 366.882660551913 363.003231639116 359.132919983586 356.403321393474 353.135535878406 350.444877677388 348.322495653613 345.527922682372 342.832641270316 340.729419775774 338.923390175769 337.39157216403 334.716962304926 332.300402570626 329.029198378334 326.609132068066 324.490372395394 322.001296341289 319.5649650082 315.103313979153 310.627685359299 307.3056982098 304.596047159118 302.180513880571 300.706830123059 299.803794966727 298.619164873937 298.310236048667 298.320170985716 298.300156531748 301.380560747163 309.983066059552 318.37634504648 326.296228043679 334.966481524099 341.860764771161 346.384451025026 349.787715194187 351.305966177973 353.101327314064 354.597308600225 356.082605316772 356.685831868028 357.279468733683 356.982495817834 356.090563552886 355.486832466613 354.58974566194 353.396126060438 351.300382785452 348.886108295978 344.887659018363 340.392590995038 336.18742792119 331.395395096554 326.897810425269 323.241818855394 317.133114544317 309.064224479826 300.20414197381 295.95335259852 292.526308970444 288.610765423443 284.122215330166 279.922179480281 275.428202647075 270.939347814731 267.041964533223 264.299260316822 260.839482779565 253.105165411929 248.436637257051 241.486415062994 236.274883936981 229.194747642034 212.5834054442 208.673256737505 206.946906707774 200.688541861217 192.111922364942 185.281441654502 181.028136675106 178.065019988028 173.115986447733 174.713689111898 172.100088827816 169.64939332669 159.862883311957 156.695578034985 161.77480599456 168.818970789215 174.60238262945 181.311073333594 182.947292472979 183.245096901698 181.397014802546 179.35714362767 180.378867218847 181.376249042184 182.967788971589 183.489603092699 183.772980635929 181.405565123356 179.303419683789 175.93741592237 173.532577474251 172.193754516011 169.062991239259 169.291239945684 167.976539053011 166.089667844781 163.990185486978 161.915857390308 161.096229629015 157.714979143032 155.834166383656 151.892662283387 142.254263503589 125.394864826561 125.408693583708 150.273413274974 171.81899444649 189.563287635011 196.6670363662 203.280478728806 213.418002429729 206.700383212277 200.096113748306 192.800605997421 194.476700507293 187.733466933412 184.390527751145 187.160820148906 190.312332940724 192.38463105651 188.577447047013 189.280950666859 196.464967008172 199.889582381715 204.178126007863 211.222718494439 220.387689549651 231.406213505125 240.335087038189 241.677687097663 241.656109850677 240.602684971065 238.656818415062 241.064107627332 243.52701984985 242.96199563478 243.620498731733 251.616159187775 257.174842892066 261.660544160969 264.362364558133 264.576325326607 262.992410172687 260.903771179038 259.396691849438 256.690135253843 252.208577539628 248.306122904057 244.070049389258 238.601963537393 232.472985775368 223.825723056391 216.197673360342 208.34152837139 194.791245557819 183.319284550997 166.81138436809 156.490245575111 148.0880868223 143.019410207224 138.762973530971 133.007514152872 128.003611334495 122.739294921645 119.010560659731 114.157261365153 105.883957846273 105.702838536855 110.093622782775 110.19341702483 110.191332841864 110.187206454411 110.298418887273 110.250590040895 110.140519631292 110.471969233615 112.381409005413 116.763059376756 108.533429214061 102.730507205204 102.543383058097 123.529321219511 136.012379188833 152.733674801001 155.879937881282 154.746985255694 155.353396835141 154.531261262042 139.025766174888 115.561278172996 149.109382547156 149.164213961262
385.846425606816 397.497540764355 409.104227819462 419.119190782493 422.9573555208 424.952606682614 421.24037160983 420.235404968728 420.881166163121 419.205744805261 418.095784948361 415.711076164481 412.648338061642 410.561284287736 411.16534460498 407.21987750231 400.238621050129 399.100792136087 395.804016876266 393.330714441191 389.147692088107 386.466136316889 384.675122871934 382.87391504794 380.478632509988 377.481553245782 374.366302922063 370.766022791202 367.179468924219 363.904245069924 361.494001259166 359.090078565896 356.677828663733 353.399831621119 350.40625052266 347.900225192383 345.506841666438 343.110946634523 340.414553802722 337.418962005614 334.406623670703 330.838417946365 328.12196040787 325.409923818795 322.026656970361 318.396266575374 313.320168545528 308.53772198994 304.924709477789 302.515385546145 301.573151082161 300.394396609077 299.508511639809 299.176570204634 298.21051157587 298.235826386733 300.722401650948 309.98548412154 318.978549584944 327.491102792148 337.321795085398 344.250252433014 348.86958553797 352.489159805228 354.001235423332 356.089241202405 357.877259858623 358.778173569984 359.386208849455 359.396007727249 359.095085561512 358.783691903087 357.599126041766 357.28738586122 355.495539330979 353.091771850374 350.971966482255 346.091877290704 341.29883037908 337.088263529674 332.592261941509 328.367254215693 322.942869284268 313.629000259685 306.419893376026 300.9921311018 295.904342318407 292.005239059004 288.012533575265 283.512572650726 279.29862557859 274.812946330387 270.61303471641 266.724290858051 263.989278158289 260.022754535005 256.117082755091 252.4499411937 247.929435073513 242.975812490229 237.503707158552 230.151864335528 225.586284521895 220.706201353254 212.369085387645 199.081956446134 186.971090189458 183.171696778522 181.752693880657 179.95596943692 178.951894136377 176.576850316126 170.915793056799 165.438654516042 155.596093791051 155.018614456077 160.640450085037 163.86618356883 170.33117450715 173.394078422601 173.452451718436 174.261976096733 173.527398000794 172.568167841263 172.56449855089 173.050270882558 172.596331727784 174.629595462698 174.63655310603 176.663851846734 176.650072141992 173.950727086344 171.12622696472 171.074591515273 169.809566764258 168.289068641593 166.669813002379 164.770394004806 162.674128243243 161.035505107946 157.525496111487 154.578642211227 150.467568011326 142.085296684561 125.583850467551 126.744042479363 154.636320052193 179.733744480628 196.613571265857 204.282457328155 207.574849526079 225.012267188266 218.51806399164 210.656815458263 206.986128231935 203.79245574278 202.164904588371 201.912320674257 198.368935210642 198.611505803749 199.44226062838 200.298923045394 206.803087018193 214.57857279597 215.17268565735 217.885147405019 223.08222467002 229.384485204906 241.668038948834 246.210820241456 248.303057606751 248.585446854505 247.183257176893 244.614012845767 241.738171074905 247.761136359885 248.819020344298 254.533266045078 256.967107692156 260.872372144971 264.569345143538 264.589476533277 264.379573561662 261.705595998275 260.894447533265 259.375464614852 256.478070319738 252.787621350166 249.533436304678 245.388266130611 240.382492387709 234.27912371654 227.177632609097 219.143344068646 213.411975837715 208.991794158353 204.97526157639 191.614044391168 175.873845191673 160.286303268532 149.116253142353 143.614487407018 136.498227683615 131.914831594842 126.621403574963 122.987865538267 120.952310756125 110.903310340788 105.513973148268 107.908323278628 109.756242391005 109.526942503267 109.091698473625 108.863115776717 108.778220219783 109.050256684853 108.974138351137 103.479096622605 103.292205934213 103.100835796136 102.911411278551 129.575953904314 146.680916347748 163.294851685866 170.204793918082 168.391511244268 167.130211924192 168.612082449367 168.145505149806 154.089649241886 123.37180657694 131.906489626592 123.981653720201
377.445021818303 387.571203243709 401.034016842459 411.068018141372 416.641211219473 421.148669913277 420.876437628302 419.504357922339 418.816803121299 418.507141457618 418.08620119446 415.698625928188 412.927033181663 410.931632863775 409.153245991113 409.049369925279 405.195470781595 403.296168210195 400.589991254516 397.882567950913 394.059158769713 393.664165990842 391.585764847026 390.060346819926 387.085370537462 384.377839223399 380.520992859518 377.212555716326 374.105844439095 371.693401823038 369.870697373972 367.467375845943 364.188584787143 362.04740133273 358.194220394511 355.20605341126 352.795905563088 350.007143490474 347.29127329006 343.702313682134 340.379421351204 336.476960594659 332.611868219149 329.608103108227 326.286655941883 322.00052836639 317.198525724452 310.375243880081 306.121740489316 302.821543955352 301.330143103673 300.993910969668 300.093029254434 299.214967586844 298.557719463427 297.991759064009 300.146760420073 309.945821729887 319.523611221421 327.481575135666 337.051607054752 344.851395048877 350.674126998537 354.886019542232 357.288157794905 358.20062574517 359.690331735141 359.708099446459 360.024679275322 363.860242329477 360.31965712461 360.006790496225 359.994435653872 359.092816564255 357.585225867434 354.292066569802 351.280597696 347.278864949004 342.189563553311 337.685045594814 333.179822221842 327.797211138447 322.637605769629 312.713215417879 303.224041575302 299.249674275125 295.623265269443 292.479833879293 288.572718058783 283.805603042668 279.297515247235 274.802738176078 270.327899450667 266.735397513047 264.281448600013 261.176941564583 257.891745044104 254.889395029051 251.830472018558 247.327522438676 242.916502306687 237.802343145445 232.231523976963 226.104618862617 219.378698143679 203.537675775145 190.819998772107 188.692227172932 186.325924067619 184.537136536273 183.59538840215 181.086961566249 175.107142458923 169.40498641666 166.750398987569 153.859469842566 153.21104090569 152.710167477834 152.208479468564 151.699440697742 160.31427586095 166.849456716902 169.707218774309 168.294805410243 168.284768010266 168.011683224763 168.809083623976 171.065821609176 170.434105151352 171.709183790079 171.434550645132 171.426465727259 171.114790602556 171.091277964788 171.052333715599 168.005290779429 166.071104971749 163.960779625877 161.676930778301 159.572625014148 156.692263323227 153.506569347691 150.213041683767 141.370761890106 125.773851773171 129.647709110109 159.403284083167 186.310656785951 202.635603351822 211.198798587974 216.002298231806 240.789178395187 239.809832210074 227.25128687605 216.429477906312 216.491844282798 211.937885266054 213.657823184305 214.257899044466 216.518678435492 219.694270910941 225.444455013834 234.813129087488 237.938663657622 236.431255797905 237.542721601096 242.768771852858 246.517616621873 255.027808403141 258.23228695013 257.168467803441 255.878217393545 254.074550459509 251.465998300393 248.885793360609 252.75986004643 255.879918110063 257.993229474006 260.888206534748 262.985796803835 264.58371141693 263.792044634266 262.0064906422 260.90918965739 260.879024438 258.291270649241 255.096914590456 251.496783453463 248.803751373792 245.396432362957 241.466255468995 236.172381769752 230.077521666046 222.249726636414 218.781418872009 215.615753192115 213.446681922774 207.110483434401 200.39525405999 186.867746447021 168.958891977591 152.486305080657 143.375377630713 136.237714360244 131.192829062225 125.280295071028 121.774452992426 116.515232837544 105.320709631125 105.137815454733 104.948134101517 104.756470031832 104.566107348736 104.382274574324 104.200553742902 104.019749228887 103.84210358337 103.654515058182 106.198455956609 126.276345997886 143.439929806734 161.327167944256 179.568729740146 188.64915718575 184.866204812427 183.880573093291 187.911275673843 190.963221149149 187.867366783672 176.49137419676 154.212210493811 132.600166944107 137.700226994452
355.934193837324 372.401002212301 383.893056436909 395.638373742055 407.600659440688 415.630828120936 417.780418762932 419.778774657871 418.50665062663 418.496980663674 418.089765966674 416.40519724966 414.979012595005 412.603342113328 410.548411810678 412.080891529451 410.872974277839 408.149102668184 404.49845723608 402.967381972862 401.159354445479 399.085068331314 397.870585826801 395.774308421836 393.087684346958 390.96699588872 388.534375343053 384.100551953844 381.111171345875 378.999511563753 376.894288741295 374.674594491772 370.810983936181 368.10053400135 365.972910618515 362.992502849245 360.2984265387 357.872616858732 354.555874286389 349.993974079227 345.774110467294 340.461224096542 338.273698382364 334.113065768695 330.234464128858 326.912930019844 322.683215412166 317.45215204727 307.34363260053 303.173328918018 303.109365970774 302.20007872057 300.415036143931 300.983000684657 299.166743273236 297.806994732164 298.902089393702 306.711966041871 316.259822040929 325.961469473931 335.543387230403 343.957104452026 351.270871704097 356.372597862515 359.092592196038 360.886949752441 361.202731653295 362.107572392094 363.304222206692 365.679057906933 363.901516133118 362.989781976612 361.20252099336 360.880266964325 357.88913952322 354.886498904485 351.282806863181 346.984346593832 341.906951183719 337.397810536323 333.169253158431 327.752711618974 321.711467052482 312.415944390666 305.185897225704 299.774658373589 295.604793557755 292.479398317313 288.570108014092 283.804231545952 279.610026635781 275.39932139143 270.921597166233 267.327991280835 264.326664091695 261.499506595794 258.494795602704 255.794060844025 253.364016470664 248.881163193621 244.363635463612 239.611574017343 233.116073963722 226.605997860359 219.521040515535 204.366630139669 201.230166480684 200.874719060338 193.270593861972 189.992560303827 189.620906475532 187.470325865574 179.042350559496 173.631700284878 170.88509453273 168.647160198729 165.758469745074 159.124138677822 160.761743104294 150.729046238471 150.178760337974 159.068817247857 162.46772307527 163.487876035826 163.234034260629 164.018887884339 164.838783019197 166.430467457393 168.498395184265 169.02243228247 171.070791908643 172.182700757738 171.69463757175 171.390994417227 169.764441528702 167.195034992017 164.003731113368 161.132352123912 159.042865479627 158.177105919665 155.582945894188 151.752490413288 150.033640243522 140.052781343744 125.967655190067 131.249448149341 162.725666509078 201.068704433887 207.210026156937 218.049204194988 227.936675829837 260.718071458543 259.798327138295 251.647613462594 242.836445061368 240.14930751851 243.247314495763 242.97915564247 244.556668484916 246.434344233379 248.54422074848 254.770416990595 261.015816898933 261.55640517424 262.124894269028 260.760993959434 261.889436903671 265.298767812799 267.225603158683 266.656224548675 264.57076504667 261.992932992461 261.460083186272 258.501175584085 254.949372920127 259.537587341958 260.882121946826 262.486623342035 263.592734996065 263.60273941258 264.086864067971 262.793063308829 260.918049860121 260.893342114511 259.586456944931 257.780750208852 254.360453493548 250.915628848469 247.814759162337 244.904615835427 241.496669334938 236.716817067152 232.234583759364 230.022665167764 225.899373803829 220.60480457369 216.40385522032 211.695349352605 207.113718877348 199.584246857818 189.776343546274 173.517378360218 160.951677966908 149.741966007142 144.843621587979 138.151597354775 141.00968990395 137.114515714558 132.816251849605 127.941842859701 121.648953860196 119.718431730301 118.177192799334 114.950290423671 115.806176786298 125.054309170254 131.922504399364 146.204144421947 155.772478842184 169.620973378179 176.155280360369 193.611017842429 195.892858226929 193.966192227732 194.146779189155 193.246076838918 191.479561311706 191.086540172101 191.052547723128 187.487901093777 181.691975442684 175.48061570665 176.260896761416
335.378135656563 355.55626688025 369.657024334417 378.733064042634 389.517258149099 410.207629303687 416.335688975662 418.480413781179 418.101141849861 418.496460486498 418.500706351158 419.180893341226 417.783194399334 415.319853899938 417.072158703217 416.272468942362 413.00116538648 410.308191653506 408.203431025761 406.400929223306 405.189067818384 403.886658207282 402.963035441588 400.585567214522 398.486369108306 396.382848457582 393.96700222571 390.70146107439 388.87616071818 386.207736905035 384.081131565101 381.377711688676 377.984460859504 374.407482263816 372.575120615445 370.469805665818 368.635638195976 365.032197850403 360.547805334212 356.332306613113 349.292038382825 346.695607829409 343.400741366726 338.714526140168 337.678387658488 333.194359837014 327.520998052855 322.95176650735 309.223703614166 308.199613754923 306.382718139771 303.420548779131 301.332411579743 300.997946331152 299.186520583729 297.702980676066 297.6467369155 302.798862934641 311.516343848671 322.350431065528 331.676844718455 340.689712591129 350.639450282325 356.671974147257 360.864811455129 361.507750541911 363.010365050985 365.686625272323 367.475416246285 367.778147355966 366.8782478769 364.489162100964 361.800934867985 360.876908975923 357.88719838741 353.991295084673 350.391956450719 346.68038752003 342.174486381948 337.078715518345 332.235418102673 324.777555237548 317.803047016114 312.353420867837 304.288423497305 298.328338079053 294.713253950352 291.599181631464 287.71535178527 283.824287520478 280.499023524021 276.621859835741 272.148080564276 268.819285819538 265.516050591011 262.11130934901 258.514852810032 256.073131315545 253.099184767661 250.918726978323 244.382573720651 240.528234823828 229.472966711611 222.395276570199 209.731786889592 209.326577239561 208.686372474724 208.04134117568 204.374649736399 200.484902477648 199.757879368155 194.641875246438 184.551280061543 178.166764660759 175.139430959597 173.796635863397 173.240155406668 171.813299634684 170.95264135084 159.018927197796 149.239131360496 148.70179387249 148.190284336085 160.291830197334 159.008558892855 161.350229507945 162.976643090731 165.083323084434 166.875717596086 168.283738820669 169.013216368089 171.087187949559 171.099806058583 171.08939879935 169.270944149101 165.361174092604 161.444078916225 161.058033864258 158.16936917177 156.38496140603 154.2945742043 152.175582548878 149.628551338645 140.122444910858 126.167046744085 131.95868617611 172.975748645585 205.662751558662 211.044202264107 225.964097022323 249.076478645763 272.191709324188 277.202331275893 274.779342300457 271.364158392201 271.821823226205 272.819383146723 275.658507933807 272.626855129022 274.196142626434 272.85963242794 273.693090399102 274.523239723789 273.267668644343 272.463939215648 268.843690532419 270.69804329348 274.053982250851 274.556355074058 272.475437824 270.178448576742 267.483853918632 265.855040951551 261.218371570335 260.400445641539 263.577768979832 264.590762626799 266.182324343353 266.188365058183 265.38694421842 262.033423002482 262.001622368096 260.907254971419 260.87031571137 258.590556955803 255.875700591786 252.82214871721 250.402886642895 247.993266116829 245.098314935297 242.010638243214 239.099683372928 236.66245517404 234.297909020244 230.098206237593 224.887747081487 219.61499804393 215.592162945178 211.147142225519 205.333639786362 200.310376183194 192.124817180491 183.987488514905 173.936827255114 162.793039828751 159.851249092928 158.515314108232 152.616103822736 148.211049044323 156.55009716453 148.271516313525 145.949673888418 144.634199579727 143.035558421442 143.073152626459 151.859975499677 162.527643172548 176.052403992026 190.703275681566 196.944747368778 198.199839026705 198.633933798107 195.990991828785 194.976919622002 193.283485768574 191.109310946333 191.085777635372 189.599335405515 189.575091426324 187.581625640907 186.035977023439 184.447152570302 181.181975818702
323.08640532377 341.677858138057 356.866349277887 364.631783668901 374.73914986023 398.593855151789 412.505334152681 417.313853454485 417.788243687525 417.804765201701 419.193120689455 419.79423278178 419.487162482875 419.786439863092 420.863579384014 418.676461698578 416.279360825676 413.898008873007 411.511194638704 410.00927192783 408.806451956577 407.604943851013 406.398006563513 404.896403594772 403.295398080894 401.484245306327 398.511372282708 396.426234726382 397.496843696853 393.395518053272 390.688363239954 387.112099520649 384.684564468421 380.816635882943 377.823854010942 376.47529381255 374.043069764579 369.554441882951 365.106110305447 360.935873720938 356.421840531198 351.696856080843 350.686613183049 348.490753839903 345.758062875723 339.507272108864 333.80256398385 327.499070332728 319.977538121905 310.956825211372 309.389118524902 306.69602065419 304.597310741055 301.023685816162 299.220769989263 298.520542751121 297.238210771629 301.277418535015 307.62613413317 315.429678174375 328.608316053697 336.790134598977 347.545489208361 355.427387291272 360.839903285853 362.678923551124 365.365312435984 367.160676585145 367.482614797282 367.779360558509 366.575308115907 364.186703994266 361.500621148229 359.685631206119 356.985198677599 353.092670075783 348.901347866466 345.192669564394 341.263090187155 335.262977660993 328.962857973499 320.080994926997 314.828139637201 309.106433598273 301.114786083217 297.729405019414 294.013382353845 290.99689441469 287.996150938667 284.695691991355 281.984745678253 279.53882025992 275.671183167648 271.199015226321 268.117383840656 262.710636250844 258.523553789846 255.206751096574 252.793658496617 250.016638416292 243.457540160963 233.832719935805 220.984459710934 219.061468836076 220.608420043731 221.431204557858 220.859929872366 222.900678845459 223.164333341166 218.086144724497 208.055320015594 201.575270018643 191.130892116629 184.208492186903 179.113252670873 179.748920487286 178.464142517509 175.608103494091 172.658430764339 168.204464036543 161.871117397808 159.181362114583 147.162003629771 146.608928967747 146.088387368008 156.119378905591 160.099434908391 162.702006255791 164.58594267403 166.085832854933 169.27214236057 169.015774490994 171.090287934277 171.079058185768 168.252228618365 162.504228228389 159.798317264508 157.703334158315 155.62652333473 154.78775485981 152.996783193004 150.857240545517 146.780002106988 138.933412322474 126.367486201711 131.922064762986 181.412855191537 211.950802113777 221.708643064782 239.112473350489 278.55288756361 286.396900730502 288.720213836191 286.631783676812 282.971308668453 284.838071839465 284.35809746188 282.976941357522 282.768347842177 283.251793872347 282.27349522356 282.468445577583 283.548230524121 282.463892509283 281.952996579083 281.937288192669 280.371046524471 279.390887755745 278.584317935151 276.193018385285 273.596457441644 271.186941416845 268.751253084308 263.886260858485 263.344398566022 266.183210708512 267.292355898941 268.578450676515 267.295238996719 265.891845260026 264.093347398891 262.005159814505 260.900097069537 259.394292656032 257.46985298347 254.610802765068 251.521491604033 249.409350374776 247.987614686633 245.876402125868 243.283144269514 241.163933000006 237.991450738086 235.369291347199 232.198742740239 227.998003303692 224.073139999044 219.550906120085 213.085674758088 210.412385339284 207.197998893261 203.750040144147 199.515539170081 194.481064178961 188.677420794866 184.691719208331 184.620368539133 179.970510997153 177.600255883605 181.980092500109 181.165670336575 178.783175257529 178.096398324306 177.310400744839 173.924516304235 178.996835003069 185.983421763434 197.955414513442 198.660444410889 200.957605461378 199.671771773034 195.804822053724 194.784789635965 192.886634087366 190.898522545573 189.601440072319 189.575322588191 187.600844981511 186.692276133977 185.293473645001 183.403355896901 182.379468026498 179.697810000103
308.48660613955 324.56184526689 337.703204040355 353.839106172815 362.307914920569 379.320962573068 406.4141540007 414.875014586028 417.052353363389 417.3955982614 418.500943936752 420.879361477131 420.887860024375 419.519308093727 420.887983447474 419.019899324754 419.280573408224 417.488663725568 415.693904972751 414.489069352767 413.292690878114 412.091577497183 410.304053819068 409.102637681761 408.474095648664 406.666279738685 403.61058035116 402.115888730624 401.781222014316 400.270461931172 397.855481854619 393.122498841759 392.157047299361 388.853183810162 384.391526470714 381.665540281373 377.182709933628 372.662752776612 370.814878464259 370.721424761216 364.722355028496 359.168516166119 360.185610658959 356.971350800134 353.357588427949 346.710038397405 341.294837700325 335.295961275548 325.962015955283 315.461968075189 311.54205929024 309.12872983346 309.368841526481 305.478141844384 300.407550334775 299.157159259385 296.854887464626 300.094838092323 304.329451417737 309.770169989356 319.034529163103 333.119464048597 342.456086322939 349.202772585009 355.776509083325 360.860538981409 363.859080079243 364.187437919773 365.081785234035 365.085511923723 364.483375978797 362.401637966759 360.893356174923 358.483025642376 355.475173081586 351.5925700851 348.468299381762 343.376754006596 338.85194712629 331.39622633204 324.526367740031 320.84334069843 313.295296896187 308.483307820119 302.518972086478 298.573220573299 294.010940251366 290.120913648202 287.700481555755 284.9984634064 282.304723881306 280.758953102874 277.738029078007 272.999482966107 268.76240233123 263.029008357772 258.531994922241 254.64312458141 251.594910215321 249.351159369883 241.0488231768 231.723230890016 229.102502129008 229.595219013541 231.633561378775 230.772514437088 228.495747778142 234.586017980988 232.527362369028 229.16620415644 222.479015641933 209.40725533253 197.181520829867 188.83042690276 185.150669687416 183.032041058607 182.957450546612 179.564467717857 175.372124396909 170.139523473113 166.923115171475 163.259475390904 161.038032991585 155.219899289291 144.999883618805 144.397858549771 160.92559979326 160.469252235397 161.575241212177 162.984000617015 167.452509737634 169.002147460198 171.080167736 170.058316874155 164.772488039574 159.595066197241 156.897932565169 155.590661022397 154.005434279648 153.182537991797 151.663074791486 149.917930928062 140.576593063771 126.767521292721 126.568076415713 151.336031747917 193.730108747566 218.261805887178 227.063051134925 248.099684519843 283.864705670884 289.85729788711 289.888159527146 289.876729602076 288.302001981636 290.956295386831 290.966410493557 290.957711232254 288.003478962094 288.780173468116 289.561678019534 287.505290924895 288.580776863663 287.983204772117 286.984014093509 285.887351466233 285.668737963467 283.773696413119 280.892188505972 278.789051396222 276.48409848983 273.552557341325 271.142556397373 269.053317746646 267.996802548287 268.788829173971 269.390303384428 268.601919580766 267.795278165288 266.491431029219 264.586924697823 262.780871599392 260.876698675136 258.590622398128 256.21685427044 253.615443015812 250.91527879806 248.812968831262 247.01145683721 245.401797847654 243.587334319061 240.89260103522 238.299988147721 235.408032607852 232.503934020042 229.613157173957 225.917322885473 222.204982753316 221.90755167134 218.770744483766 214.873897544263 211.380359689038 208.471486109289 205.359299778898 202.144906883696 199.049361556508 197.146638323556 196.123561564857 195.503888033237 192.176567319701 191.660628132473 191.34868005163 194.480500867353 194.67707803683 194.499033317357 197.800597711902 198.448703738236 199.0907891125 200.982394303954 200.972582112277 196.904527164763 194.403857345296 191.518678997536 189.814823166683 188.604851040646 187.596198368693 186.493286108927 185.485626351672 184.278992617434 182.589660654159 181.381297783011 179.679486440792 176.905367861502
302.446000276113 313.46918143112 325.639440168428 343.662339145369 359.595954684663 371.895670638455 395.767295180875 409.615073623751 413.530428830715 416.656652943202 418.092144150534 419.495302060484 420.893525147503 420.906066000263 421.598394127984 421.695986447249 421.392168213851 420.494290360296 419.5858375374 418.099535728229 417.779296757616 416.871747558305 414.503166737096 413.588777039818 412.961638294389 410.873531839699 408.512078406703 408.163166420557 406.684733337595 405.175881006842 402.969444053202 400.277803964647 397.267871209264 393.368979700817 390.917654405175 385.239598020735 380.224545228921 378.377978576276 377.17669501697 374.684511238149 370.185483257198 366.918135701627 366.266863276024 363.586450088875 359.989068542407 356.074413836157 349.512781385552 344.2690411833 333.176490368573 322.034621017105 318.995878850598 316.258827143591 310.30470607404 306.090773498632 301.025824687034 299.197133098211 296.423793458874 299.205751020497 302.208043343272 306.423734746052 312.454426605932 323.296806030351 337.286630753395 345.73663710631 350.692008111568 356.364163573339 359.076570112171 360.295406496291 361.487944136138 361.786230440333 361.483612341945 360.880879279371 360.842613568727 356.657228671031 352.2032525199 349.474866628905 346.050746351924 340.9544827694 334.375660539758 327.525623218334 321.533472645827 316.89591385244 311.806325310581 307.846426232629 302.515035086454 298.866283354684 293.813478459829 290.11755590229 287.375576865544 284.412619766234 282.015541161933 281.048596984863 278.610906275598 273.859899837424 269.36588452488 263.996613938444 259.392704210313 255.473531843214 251.504251143584 242.522207432963 238.895159706593 236.491154709427 238.983728297651 238.999649355312 240.14919073063 239.269424749878 240.420454302379 240.732023352362 236.870454834846 232.53965984739 225.333450273786 216.043875219003 204.388775723872 197.724872904691 190.596624422413 188.030254059819 185.619980475659 182.499727725588 176.543666940837 175.419084496047 173.281822718158 170.551200286242 166.063567738021 159.056594356782 154.003611830634 143.220232643712 142.438079654739 141.885642292921 148.117003186316 159.189518748352 165.264518214447 169.703472618253 170.981871931772 165.773206719043 160.018096982776 154.774164464177 153.483677984657 152.978227221741 152.471887994552 151.084350949714 149.976395782717 142.926450602451 127.16794992815 126.963309754078 140.741319560361 174.259861588399 199.477854817222 221.528383460083 230.250245240998 257.9176249152 288.354367436544 289.882647693499 289.898076399612 289.893525376042 289.89416775985 290.991096478029 291.20191615714 292.481587408173 292.484419012161 292.489780218582 292.983305732162 292.4817884846 290.991599254678 290.969851276438 288.596553431652 287.491897652357 285.891691375947 283.784999692103 281.197185304561 279.389011651728 276.498352411539 273.047454623398 270.774457465226 271.977556734106 270.408485428972 270.890692279767 270.887252560439 269.599781850384 268.294869228256 266.684410447959 263.80605987153 261.215413717287 258.842956297511 259.079664811775 256.197744022126 253.3035494182 250.904103546972 249.082128744242 246.987457062057 245.09026523165 243.292050744938 240.901704570894 238.305757858721 236.197477865468 233.781823428606 230.693492664877 228.290140254678 225.892499121697 226.372379429944 223.488869782508 220.591298445139 218.283544281277 215.876035543374 213.464164003588 210.081707203749 207.680700790742 206.358537680921 204.073577650444 202.966803495326 202.442752243867 199.080149205597 197.986581668008 197.696627076775 197.505479912803 198.787247881093 199.877437499937 199.499187791258 200.983205247542 200.984318540918 199.081809122787 195.804058961088 193.584014187173 190.695290395067 188.205160752111 186.987741541596 185.293588692285 183.600224458216 182.004246845065 180.409877726217 179.103139546517 177.894787604946 176.00977487788 174.412587108147
299.466942920145 304.675486474731 319.65282927119 330.791222254393 347.570209450308 364.825957787472 378.076552039129 399.271380755514 406.632973936988 413.251544274604 417.068190853106 418.500232769948 420.889728921043 422.591897698731 423.297871820841 424.09152405759 423.79902648098 423.496617801768 422.603671545245 421.706285103487 420.809302325473 420.196307956301 418.98926344044 417.484650649435 415.698725204564 414.487473252922 413.006146876426 412.673082690913 410.891561239761 408.793074264306 406.399061488622 403.877020516031 399.684528004008 395.488494669905 391.306949989577 387.37901461285 382.980702110956 382.880834950796 382.273286497899 380.718272640409 375.019825003881 374.348222925202 371.986648477904 370.458460861014 366.885574723354 363.871943012848 359.066263221782 352.163675924936 341.245252747025 327.547261795292 322.714697399308 316.31483589215 311.206168779687 307.280235604126 302.203255855078 299.201290216649 296.028418679176 295.985095964393 300.066771589868 303.399811454983 306.763129077896 313.392626303869 325.705064793499 340.273218508482 346.3645906821 350.010595258553 353.696828967736 356.972030866809 357.8814977042 357.882921236409 357.578799157364 357.267011544382 355.764589895715 351.897030165355 349.746316930389 345.177850948763 341.275781187786 335.600028443498 329.907670444929 325.086049025909 320.261018203408 313.898560660377 309.406722434606 305.20965276246 301.594177118539 298.546464869841 293.78034373532 290.078948712189 286.780761351323 283.779568537521 281.114033677181 279.56918400313 276.29900418468 272.988151772215 269.068610886107 264.480436993144 259.9676284825 254.894531421336 250.281089177543 243.217428639084 247.642436579351 248.25066046972 249.424696794407 248.260325704265 247.07088936062 245.589791850735 245.26905760911 244.05674993632 239.590384016339 234.404450548724 228.692893016354 221.762764981468 214.264239878716 206.698290570918 199.821845558706 194.776878564138 190.413017977685 187.50504309647 184.593396534887 182.457931403449 178.796310050024 175.114069831066 171.393390539346 166.394727656312 160.195321569066 159.986468203937 151.803349631808 140.587058153408 139.63676040413 139.020475903839 138.471167638562 157.65697960563 153.249108155914 135.965334751503 135.424664379368 147.813421646349 149.550565605879 148.967930019848 149.516100748136 149.458658241126 144.451865339307 127.572600857337 127.371003439575 140.933247999696 154.546313171141 184.551598253558 202.93938281944 225.665215958703 234.133472089936 257.742472665384 289.65576034727 289.573525377274 289.895446813369 288.812436415061 288.815149698979 290.981521308082 291.001015296432 291.697912522259 293.282194646803 294.07875493329 294.577034160584 294.565501942617 291.198523327053 288.823224190964 289.38111374438 287.778229406325 284.896902865121 282.502943827611 280.699808201482 278.811297447274 278.247992697187 275.902314746501 273.81724735054 274.088978410025 272.796255769435 271.209696134334 270.903021469737 270.879429381391 268.599798264871 266.203453805816 263.80885673815 261.503737461065 258.84930006224 259.884804514334 257.179446296375 253.589022173616 249.936087464554 248.588925506547 245.896711134762 244.089062943424 242.783124834898 241.189234656263 239.088164660748 236.971423391822 234.102397136885 231.409333369587 229.131730979473 229.094567656662 228.282193464672 226.384003687149 224.08663114631 222.481776184365 221.172361061585 217.799567992409 216.182092690853 213.785708531662 211.683686089677 209.094737442849 207.494131145519 206.382698601072 204.289073126993 202.987657024503 201.98796043589 201.18624152462 199.604638732377 198.90394777291 198.902564702813 200.97450659902 199.686501085032 197.490963765829 194.987128627676 191.504869838911 189.194983575433 186.989154617489 184.124956871341 183.18984618433 180.815798921565 179.309659550038 177.902120179055 176.017106208801 174.427255970364 173.801412562155 172.701922400445
291.877533206459 302.335515048549 310.987389234112 321.065935359981 336.860652411097 350.68596241633 366.950580202329 380.51970734428 398.958650690921 408.059320636484 414.952117183319 417.397323826805 420.496990291129 423.284885970845 424.696045682686 425.896860958551 427.087667417997 427.089017484641 427.080568570454 426.480496115317 425.58443212115 424.389067548112 422.887849335516 420.49724058644 418.702049711475 417.794300100314 417.187058822068 416.575073006094 414.783317491138 412.39213507391 409.686079828431 405.783624314911 400.624664573062 397.579927135037 392.82356241037 389.531748931196 387.416178202393 386.48753771661 385.278440413768 381.719752139973 380.759880972492 379.540373454497 376.507767361153 375.277113101058 371.696216304577 367.500254389176 362.969084415192 355.477911966112 346.066492501555 332.644901514198 325.115455607255 319.011852200713 311.825891500299 306.139288375499 302.224834282434 299.179202127921 294.783809367042 294.345615366534 294.98374804552 301.255286452004 302.865912752148 307.38272999129 316.076256330455 328.716219916402 341.808577944708 346.35988350073 349.180023413225 352.749384925975 353.661278372897 353.077701005959 352.185151784242 350.997323979932 349.979089375926 346.988066660557 343.389992202508 340.069469956297 336.162938415134 331.091271619919 326.003945644447 321.775610765584 316.860848826259 310.341196591595 306.721893701178 303.985120817728 299.242791786575 295.914561129408 291.367151989116 289.190452786533 285.313880361871 282.036324091435 279.914136475535 277.506523094331 274.800883100962 271.506630062123 268.471479880607 263.046098424138 260.274986210311 254.353793725042 249.456401850199 252.175557962424 253.972170824429 254.878405038993 255.461280027069 254.563308049241 253.063828028717 250.687972228357 248.318099770624 246.497684530364 242.612077458562 238.386497057897 232.909277304941 228.069850130449 222.099961812022 215.518783819776 208.021336760089 199.368971975248 196.421932792339 194.091270045607 191.086463020904 187.699322778309 184.590564061951 181.651303349688 177.194443497343 175.311750676713 169.327297736939 165.903451484609 162.491617471383 162.884596517856 161.037537119002 156.377507273507 136.92892182649 135.855754841292 135.044820329031 134.158023185098 133.21280164192 132.24502014115 131.258812681261 130.145997263571 129.034819287719 128.19209081821 127.978056104273 127.774408947103 140.097354201205 150.16085795969 167.897802773576 187.857574670231 202.058849018653 220.486560180811 227.909480348339 250.759683676268 279.680334513533 287.766703843009 291.174707612807 288.821748423413 288.812234186008 288.821298528752 290.979012962199 290.992956658977 291.008807787157 291.51194480328 292.790537105243 292.295783064139 290.997488212806 289.397400916221 287.995000791959 286.201508949985 283.80555133968 281.513906970318 280.203125377986 278.814816761107 279.877945903877 278.558669570952 277.29456008544 275.696231184599 274.099367501518 272.497696178802 271.204736831964 270.883359420199 269.085715508618 266.989733336527 264.592180562628 262.300001618904 260.896087273519 260.877338278607 257.981892378684 254.08900663213 250.412212238214 247.975061843054 244.133524580035 241.740065028742 241.222887744108 241.1851944836 239.279235636637 236.981231515232 234.563799706097 231.717153399393 231.15925238735 229.898377069257 228.286589735937 226.383772249189 224.092645963166 222.789618426358 221.984169176027 221.17985700179 219.570654586947 215.886920620165 214.08388295917 211.989367506881 211.172176089122 207.707049154757 206.39390991812 205.382590780524 204.079460890248 201.993723406576 201.16975618316 198.305770802054 197.120498127018 198.880323672557 198.082060010346 195.788046207996 193.574551525061 189.995804780868 187.007466186113 185.091967423577 182.990670192875 180.807154519505 179.11305981827 177.699605640731 175.626630346464 174.606126322808 173.111966142398 171.912470481689 170.913073315283
284.897909757561 294.316297209038 301.742303117822 311.772209551025 324.837783932797 337.01065264421 350.515402225709 368.394411681801 383.87030563126 406.146198044961 410.842587640128 416.377801235736 420.863646523148 422.990139863196 425.392758096681 427.397444876706 429.185026632619 429.494230201095 429.789630860064 429.786907995057 429.483148764578 428.580012236773 426.776635910231 423.789909524072 421.415724403682 421.087273437638 420.489857739298 419.584912859567 417.788048894125 415.682763287433 411.508960779494 407.888259851888 402.731179961785 399.398353485516 395.822858044123 393.708254332776 391.313465550839 389.491055071617 387.094809100135 384.70988918297 383.22090818758 382.590978829613 381.093648020654 379.284802992056 375.296022976274 371.371397024267 365.967025650874 358.161491917048 348.490843775906 339.187088822762 329.596625292032 320.531827310631 313.937440111253 309.662680919853 303.11259118865 298.022594516501 293.373201721667 292.228807214765 292.013596057417 298.777163364891 302.161300863844 304.052854197652 309.185204078577 322.929302493815 335.481941800395 340.653848647677 343.372370046659 345.179735761413 347.541581364239 346.969869381846 346.08616436918 345.482430873423 344.271559362998 341.856568190326 337.657634381359 332.317149619109 329.590966416589 326.284718755024 322.369574454364 317.759757370286 311.537787110013 307.912251109087 304.90121825048 302.474505996627 299.466510359288 295.248298506448 291.304182119047 288.558884741921 284.708627928419 281.148977262105 279.598783085315 276.335617280438 273.330480368454 270.332286976191 268.152909770919 262.487903209876 260.852957776423 257.58811306309 255.840011173866 258.171884649613 259.971734958513 260.27928920077 259.391476969103 257.906678409945 256.990366587973 255.187158795124 252.79922590238 250.970972879785 247.390308643363 243.225970441108 238.469792277158 233.313735246421 231.993722799601 227.756045658476 216.451581716103 207.096955117907 203.836922524425 200.91077316743 196.453761016693 194.080895116576 189.599509918903 185.600937391643 182.223358759315 180.895633345505 179.561908198893 175.563435833755 167.8330413806 171.060024500669 171.844175466596 172.605749910064 170.986724858844 168.674663829254 162.149103021883 158.738425471208 152.493858531114 151.013205737972 149.274116772303 144.830615684415 132.581669430631 128.42482196921 134.850368027481 138.190877616171 140.834069877712 153.611971140753 171.371033401473 188.449432237814 205.315284669857 215.562482931907 219.402394092136 243.697383410802 272.845084698707 287.212261794715 292.747189425469 290.998785152958 290.980475951031 288.813533189676 288.811800203361 288.823997960536 290.979210375638 290.989727137848 290.996290977262 290.994966980359 290.97718129293 289.080597006212 287.478887179986 285.391369820422 283.303314718537 281.505430250151 280.197396134018 278.818632896333 278.812548686024 279.591811869419 278.000821120049 276.696164656271 274.901703278888 273.297773736815 271.499508767022 269.900623585165 268.304129817572 266.989823421637 265.081298952914 262.783733382901 260.41460881039 260.869564622489 257.779664192115 254.58078926096 251.476720350784 248.541409876474 242.554980070099 240.160630966463 241.178666630903 241.174122932719 238.57111225353 236.17360295165 233.57773190439 230.924307242255 231.157045898461 229.06340668563 226.997630062227 224.593483417709 222.207380729277 221.199020476359 221.182173064153 221.163056008447 218.764649703221 215.582669175141 212.797425202924 211.69727781274 211.173964183838 209.072989535686 206.683063093584 204.294382358023 202.497906521261 201.192652129063 199.590452422636 197.890845777882 196.011215400727 196.376174218982 195.376633750126 193.56497288477 190.478214583856 188.168332279168 185.089880307801 182.99097010981 180.616392380224 179.496688114774 178.097895397392 176.414366221966 175.01968788641 173.810057242398 172.507227832187 171.115569347598 170.018395028195
268.269332771007 284.300711870762 294.393692276671 303.490673818719 316.90625874963 329.687590551666 341.427782155094 356.934124968123 370.47821401176 386.361951398315 406.798821150981 415.913551766304 417.819659959789 421.895419549858 426.079829310449 428.580338811453 429.206379745155 430.994941666432 431.894030531772 431.897672200047 431.591298462632 430.09827165104 429.177099442232 426.781473136423 424.389642301218 424.077433338285 423.484508300796 421.992167212789 420.199988111055 418.667370147735 413.909511417684 410.887896904218 406.001839781569 402.413449942872 399.718312236782 399.342246192852 396.057862716381 391.320929011873 389.78148542402 387.680117555009 387.074166706945 386.484381176471 384.692589010297 382.28480622912 377.790767048762 373.188197678281 366.881922486774 358.807358992133 350.985760880373 342.49718522782 334.380058743994 324.223766145267 316.321045476147 310.314212208548 304.31056407121 299.209765551311 295.246760810461 291.098245278982 290.351581221567 290.839181064531 299.712408377248 302.484927710329 304.102404136191 310.137412630931 326.753909871535 333.423677513686 336.460996468321 336.52447414654 338.295720636916 339.188376184963 339.203949446385 339.767634202802 337.674587384911 334.363241806607 329.581164246664 325.397951425904 322.980445775534 320.855589235751 317.164341103406 312.112579671668 308.210654426181 304.919088376268 303.083031551975 300.374122383094 297.071895351903 292.902321767309 289.514766267094 287.100594836634 284.399187744794 281.152889815305 280.708480323825 277.174218185945 273.019575583421 270.034472100738 267.309219186793 263.661303906875 262.113704552424 261.496607528433 261.4874975097 262.396057877687 264.869985823852 264.878162711063 263.594012421734 262.395421914508 261.184429573614 259.377816198613 257.285869476418 255.189280472123 251.406563817676 252.742257485511 248.903257353164 244.764498063646 244.105516007187 242.505809236302 229.346842566709 220.436343267628 213.840125943509 210.09631902485 205.388561161551 199.618707138077 194.334378959519 189.657226944771 187.264102375255 188.486467763602 187.965613010697 185.049314711787 179.593372558237 177.506239031217 177.991700731965 178.772257359373 176.855266525007 170.364662059502 163.790736058771 159.764410182575 151.19818653553 152.503316589413 151.082310586938 148.916916913924 140.324425920963 128.629669305886 135.342790037714 139.170074692523 148.811017647803 161.602316225658 175.785899687703 187.51525561903 200.608558850459 214.502538481469 222.628001203771 244.294603811754 270.553945136904 282.459461573108 291.946708239152 291.49939218133 290.98649781542 288.814532671186 288.800101695361 288.803734162155 288.813116195129 288.825306152438 289.89516619423 289.394174158333 288.779360603298 286.694401986031 285.393576264102 284.386728332199 282.796386804319 281.498481482549 280.20353540164 278.828852688533 280.884522172211 280.882497848466 278.797309538472 277.487325929113 275.689228434276 273.78731098957 271.497482752613 269.595192400028 267.990551606635 266.188845514764 264.095379059936 261.995688704401 259.900727109982 257.985814786781 255.705586047469 253.285424918872 250.39802546452 249.320135016421 242.520972259563 239.146130840695 239.848575121551 238.576847713046 236.675569358635 233.791401863895 231.402826503334 229.880353325886 228.282991011792 226.984807960643 224.880233958439 222.503309023062 220.598313355239 219.100835010417 218.486041927622 217.186133875091 214.893081285102 212.206993263072 210.614429145773 211.169760002663 208.790468266392 206.401643382301 204.884705430159 202.499522260653 200.89921444382 199.591754344371 197.698613770311 196.192468738113 194.971276164493 193.551524350506 190.511293114608 188.406173111857 185.726689980376 183.918015817077 181.827856653314 180.801503190706 178.920303551253 177.913460077885 177.292862713084 175.821095204989 175.974947893497 174.179556619003 172.108952789694 170.907844337905 171.076175196752
